ply
format ascii 1.0
element vertex 1273
property float x
property float y
property float z
property uchar red
property uchar green
property uchar blue
end_header
0.378161 0.555334 -0.113776 0 255 0
-0.191529 -0.336241 -0.512749 204 51 127
-0.122165 0.370578 -0.353481 76 153 0
0.147918 0.748895 0.533870 0 127 127
0.307059 -0.449871 0.194968 153 0 76
0.097154 -0.722305 -0.558254 127 0 127
-0.024235 -0.475701 0.017771 255 0 0
-0.384050 0.658399 -0.338827 255 0 0
0.304152 0.536789 0.315834 76 0 153
0.269245 -0.339042 -0.376233 0 0 255
0.220613 -0.552491 -0.298497 127 0 127
0.171777 0.202305 0.511117 127 127 0
-0.278987 0.347971 -0.353481 76 153 0
-0.384050 0.539008 0.375682 255 0 0
0.153434 0.568074 -0.331264 204 51 127
0.378161 -0.666638 -0.228960 127 127 0
-0.224111 0.030544 -0.076383 153 0 76
-0.210837 0.261697 0.567998 127 127 0
-0.187530 -0.467168 0.095616 255 0 0
0.235888 -0.567848 0.567998 76 0 153
-0.223143 0.285232 -0.376233 76 153 0
-0.159235 0.052665 -0.524125 127 127 0
0.378161 -0.268394 -0.516809 127 127 0
0.307059 -0.246263 0.291939 153 0 76
0.154783 -0.552491 -0.104389 127 0 127
0.031158 0.568074 0.126531 0 0 255
0.395226 -0.438510 0.413459 0 255 0
-0.225444 0.030544 -0.220946 153 0 76
0.284307 0.157616 -0.076899 127 0 127
0.284307 -0.417443 0.121376 153 0 76
0.201259 -0.566737 -0.558254 127 0 127
0.284307 -0.145115 0.125795 153 0 76
0.395226 -0.246954 0.455671 0 255 0
0.225911 -0.529738 0.007314 127 0 127
-0.202940 -0.529738 -0.307251 127 0 127
0.074222 0.305311 -0.353481 76 153 0
-0.000723 -0.746674 -0.558254 127 0 127
-0.145308 -0.742524 0.374602 76 153 0
-0.384050 0.319262 -0.017535 255 0 0
0.131024 0.029586 0.533870 127 127 0
-0.175949 -0.552491 0.126745 127 0 127
0.182429 0.414494 0.502794 127 0 127
0.354579 0.021871 -0.524125 127 127 0
0.331681 -0.337464 0.567998 76 0 153
-0.349513 0.616342 0.533870 0 0 255
-0.021473 0.139891 0.567998 127 127 0
0.179744 -0.529738 -0.454257 127 0 127
-0.384050 -0.078203 -0.427618 255 0 0
-0.213091 0.007792 -0.375141 76 153 0
0.378161 0.726883 -0.060311 0 255 0
0.056810 0.022006 -0.376233 76 153 0
-0.384050 -0.495379 0.043317 255 0 0
0.395226 -0.231888 -0.310309 0 255 0
0.378161 -0.573353 0.278453 0 255 0
-0.210471 -0.257018 -0.376233 0 0 255
-0.401115 0.347500 0.227709 255 0 0
-0.401115 0.068194 -0.270876 255 0 0
-0.401115 0.601867 0.276569 255 0 0
0.348459 0.191301 0.533870 204 51 127
0.378161 -0.370662 -0.122256 0 255 0
0.378161 0.429708 0.145025 0 255 0
0.121352 -0.455604 0.533870 76 0 153
-0.294198 0.536789 -0.220562 153 0 76
-0.290196 -0.363376 0.181043 204 51 127
0.284307 -0.170458 -0.111461 153 0 76
0.069051 -0.010666 0.533870 127 127 0
-0.393033 -0.366998 -0.558254 255 0 0
0.293152 -0.006638 0.533870 127 127 0
-0.036671 -0.136028 -0.353481 0 0 255
-0.332066 0.582111 0.567998 153 76 0
0.395226 -0.499772 -0.257117 0 255 0
-0.241737 0.087382 0.533870 127 127 0
-0.384050 -0.732515 0.352285 0 127 127
-0.319743 -0.525388 -0.512749 127 127 0
-0.056567 0.039076 0.185117 153 0 76
-0.150213 -0.755581 -0.524125 127 0 127
0.225174 -0.288917 -0.524125 127 127 0
-0.312948 -0.443463 0.376860 204 51 127
0.297981 0.566349 0.533870 153 76 0
0.378161 0.417134 -0.347673 0 255 0
0.378161 0.610648 -0.338845 0 255 0
0.000408 0.372451 -0.524125 127 127 0
0.190514 0.355617 -0.524125 127 127 0
-0.216751 0.065446 -0.512749 127 127 0
0.307059 0.578976 0.308365 76 0 153
-0.384050 0.253226 -0.215729 255 0 0
0.284307 0.594700 -0.223328 76 0 153
-0.148335 0.765543 0.533870 0 127 127
0.378161 -0.070244 0.423455 0 255 0
0.142674 0.645313 0.511117 153 76 0
-0.384050 0.149513 0.255042 255 0 0
-0.176421 0.640273 -0.512749 127 127 0
0.089445 0.030544 0.462264 153 0 76
0.215428 0.182390 -0.353481 76 153 0
-0.179522 0.628809 0.533870 153 76 0
-0.401115 0.745013 -0.143053 255 0 0
0.076689 0.636414 0.533870 153 76 0
-0.401115 -0.293977 -0.515548 255 0 0
-0.072887 -0.457602 -0.376233 0 0 255
-0.290196 0.287641 0.059432 0 127 127
-0.384050 0.668224 -0.266553 255 0 0
-0.412491 -0.583146 0.522821 0 0 255
-0.177715 -0.552491 0.068287 127 0 127
0.260755 0.601287 -0.524125 127 127 0
-0.384050 -0.267704 -0.324274 255 0 0
-0.198379 0.576547 0.533870 153 76 0
-0.304870 -0.276904 0.567998 76 0 153
-0.312948 0.249480 0.471392 0 127 127
-0.123009 -0.557821 0.499741 127 0 127
0.096210 0.559542 -0.217621 0 0 255
0.395226 0.394276 -0.551173 0 255 0
-0.384050 -0.076749 -0.039170 255 0 0
-0.290196 0.262437 0.186232 0 127 127
0.036000 0.115705 -0.376233 76 153 0
-0.195217 0.030544 0.239664 153 0 76
-0.384050 0.263958 0.027406 255 0 0
-0.401115 0.145827 -0.149766 255 0 0
-0.384050 -0.521472 -0.511529 127 127 0
0.284307 0.629718 0.108224 76 0 153
-0.174601 0.006887 0.567998 127 127 0
-0.203309 -0.529738 0.358159 127 0 127
0.378161 -0.529863 -0.411018 0 255 0
-0.179534 -0.529738 0.205370 127 0 127
-0.372739 0.458658 -0.524125 127 127 0
0.307059 0.202669 0.072454 127 0 127
-0.123892 0.291155 0.533870 127 127 0
-0.093692 0.059816 -0.376233 76 153 0
0.080197 -0.512832 0.567998 76 0 153
-0.384050 0.697573 -0.520915 127 127 0
0.307059 -0.339833 0.520527 153 0 76
-0.401115 -0.065396 -0.322717 255 0 0
0.214721 0.233551 -0.524125 127 127 0
-0.384050 0.124605 0.017373 255 0 0
-0.056291 0.606529 0.609454 76 0 153
0.232636 0.030544 -0.069271 153 0 76
0.254767 0.225832 -0.353481 76 153 0
0.231647 0.355316 0.533870 127 127 0
0.120706 0.247746 -0.512749 127 127 0
-0.272766 0.030544 0.363627 153 0 76
0.009148 0.480960 -0.512749 127 127 0
0.207979 -0.415368 -0.353481 0 0 255
0.222720 0.021029 0.533870 127 127 0
0.139256 0.641311 -0.512749 127 127 0
-0.312948 0.574594 -0.009536 153 0 76
0.370210 0.039379 0.499741 0 255 0
0.395226 0.502725 -0.277909 0 255 0
0.346537 -0.412394 0.499741 204 51 127
0.315302 0.710277 0.531714 153 76 0
-0.312948 -0.336943 -0.209720 204 51 127
0.378161 0.743951 -0.109397 0 255 0
0.008622 0.001154 0.567998 127 127 0
-0.127615 -0.475701 0.418675 255 0 0
-0.384050 -0.460004 0.113843 255 0 0
0.140471 -0.257598 0.533870 76 0 153
-0.259391 -0.650263 -0.524125 127 0 127
-0.384050 -0.269381 -0.168434 255 0 0
-0.309210 0.234841 -0.376233 0 127 127
-0.384050 -0.006222 -0.248877 255 0 0
-0.192647 -0.562457 0.499741 127 0 127
0.395226 -0.735092 0.073383 127 127 0
-0.354012 -0.242188 -0.524125 127 127 0
-0.138323 0.559542 0.146136 0 0 255
-0.021508 -0.529738 -0.401542 127 0 127
0.084848 0.039076 0.123815 153 0 76
-0.290196 -0.250425 -0.079279 204 51 127
0.091908 -0.608493 0.374602 76 153 0
-0.384050 0.376166 -0.080831 255 0 0
-0.344233 -0.499995 0.503154 0 0 255
0.260223 0.039076 0.460849 153 0 76
-0.384050 0.041328 0.475810 255 0 0
0.003664 0.568074 0.262192 0 0 255
0.054453 -0.583122 -0.524125 127 0 127
0.060292 0.515400 0.567998 153 76 0
0.284307 -0.437573 0.332542 255 0 0
-0.384050 0.428153 0.142334 255 0 0
-0.266909 -0.529738 0.037614 127 0 127
0.395226 0.265013 -0.506305 0 255 0
-0.053009 -0.310175 0.610046 153 76 0
-0.064393 0.694880 -0.558254 255 0 0
0.378161 0.552623 -0.404055 0 255 0
0.378161 -0.446910 0.023449 0 255 0
-0.069519 0.030544 0.342313 153 0 76
0.395226 0.177299 -0.238137 0 255 0
0.201565 0.314478 -0.512749 127 127 0
-0.124634 -0.475701 -0.089360 255 0 0
0.367353 -0.148973 0.533870 76 0 153
-0.290196 0.572892 -0.244716 153 0 76
0.395226 0.721088 0.379007 0 0 255
0.351834 -0.603948 -0.524125 127 0 127
-0.401115 -0.337753 0.244728 255 0 0
-0.312948 0.574276 0.252340 153 0 76
0.357168 -0.577866 -0.558254 127 0 127
-0.046751 0.559542 0.283455 0 0 255
-0.401115 0.178454 -0.104456 255 0 0
0.083646 -0.467168 0.133935 255 0 0
-0.338861 -0.529738 0.191715 127 0 127
0.073907 0.353329 0.533870 127 127 0
-0.199978 -0.570017 0.374602 76 153 0
0.378161 -0.366333 0.155290 0 255 0
-0.401115 -0.750426 -0.104089 0 127 127
-0.312948 0.627983 0.327370 153 0 76
-0.002196 -0.475701 -0.226950 255 0 0
0.089291 0.713039 0.567998 153 76 0
-0.254286 -0.096700 0.533870 76 0 153
0.284307 0.142297 -0.337926 127 0 127
-0.401115 -0.381084 0.307983 255 0 0
0.160483 0.736425 -0.524125 255 0 0
-0.401115 0.011268 -0.000945 255 0 0
-0.384050 0.739592 -0.183437 255 0 0
0.378161 0.673427 0.449038 0 255 0
-0.384050 -0.266575 -0.380980 255 0 0
0.125650 0.287306 -0.376233 76 153 0
-0.103018 -0.436307 -0.353481 0 0 255
-0.401115 -0.349139 0.184814 255 0 0
-0.412491 -0.239027 0.533710 0 0 255
0.138858 -0.529738 -0.332164 127 0 127
0.307059 0.223908 0.161723 127 0 127
0.142065 0.142219 0.533870 127 127 0
-0.384050 -0.751750 -0.533386 127 0 127
-0.401115 0.628992 0.337188 255 0 0
0.395226 0.282331 -0.042257 0 255 0
-0.384050 -0.430339 -0.021758 255 0 0
0.058798 -0.470100 -0.524125 127 127 0
0.378161 0.590225 0.256510 0 255 0
-0.062006 -0.524050 -0.548023 127 0 127
-0.384050 -0.262216 0.364577 255 0 0
-0.384050 -0.236357 0.435188 255 0 0
-0.100328 -0.749379 -0.558254 127 0 127
0.299770 -0.153484 0.533870 76 0 153
-0.401115 0.253499 0.234682 255 0 0
0.266678 -0.458791 -0.353481 0 0 255
-0.067508 -0.015747 0.499741 127 127 0
0.395226 -0.525565 0.060756 0 255 0
0.296891 -0.143954 -0.512749 127 127 0
0.101843 -0.475701 -0.314698 255 0 0
0.068199 -0.262617 0.533870 76 0 153
0.241839 -0.303608 0.567998 76 0 153
-0.164462 -0.475701 0.011357 255 0 0
-0.015614 -0.570487 0.374602 76 153 0
-0.370520 -0.529738 0.112979 255 0 0
0.242529 0.371833 -0.371673 76 153 0
0.058803 -0.552491 -0.191487 127 0 127
0.284307 0.191462 0.339715 127 0 127
-0.384050 -0.237571 -0.063465 255 0 0
0.284307 0.623804 0.328902 76 0 153
-0.097760 -0.648296 -0.524125 127 0 127
-0.220614 -0.440261 -0.376233 0 0 255
0.395226 0.331680 -0.092819 0 255 0
-0.312948 0.335580 -0.023013 0 127 127
-0.138670 -0.552491 -0.003250 127 0 127
-0.215201 -0.080375 0.526346 76 0 153
-0.158677 -0.463118 0.533870 76 0 153
0.141683 -0.683875 -0.558254 127 0 127
0.093081 -0.475701 0.085620 255 0 0
-0.384050 -0.054902 0.109081 255 0 0
-0.401115 -0.644353 -0.470706 0 127 127
0.307059 0.181893 0.033986 127 0 127
-0.384050 0.402416 0.403902 255 0 0
-0.072580 -0.467168 -0.246937 255 0 0
-0.168068 -0.187140 -0.376233 0 0 255
0.284307 -0.407338 -0.141527 153 0 76
0.233455 0.559542 0.025846 0 0 255
-0.314144 0.669447 -0.512749 127 127 0
-0.119116 -0.372307 -0.353481 0 0 255
0.290223 -0.714382 -0.524125 127 0 127
-0.312948 0.560425 0.181233 153 0 76
0.038249 -0.529738 -0.289205 127 0 127
-0.299947 0.397578 0.567998 127 127 0
0.003519 -0.055773 -0.524125 127 127 0
0.011783 0.096240 0.533870 127 127 0
-0.258052 -0.353917 0.533870 76 0 153
-0.077877 0.039076 -0.205551 153 0 76
0.084943 0.157577 0.567998 127 127 0
-0.169651 0.749487 -0.524125 255 0 0
-0.312948 0.149669 -0.256748 0 127 127
-0.401115 -0.459154 0.439323 255 0 0
0.395226 -0.074125 -0.243681 0 255 0
-0.160172 0.456290 -0.524125 127 127 0
-0.106817 -0.498453 0.533431 76 0 153
-0.119849 0.737416 -0.524125 255 0 0
-0.078704 0.752069 0.499741 0 127 127
-0.340549 -0.079794 0.533870 127 127 0
-0.215959 0.030544 0.161352 153 0 76
0.395226 0.419595 -0.279688 0 255 0
0.211357 -0.552491 0.078888 127 0 127
0.084662 -0.240346 -0.376233 0 0 255
0.395226 -0.522180 -0.517823 0 255 0
0.284307 0.646507 -0.004885 76 0 153
0.205104 0.306739 -0.376233 76 153 0
-0.312948 -0.428970 -0.074337 204 51 127
-0.384050 -0.565706 -0.030524 127 0 127
0.223405 0.568074 0.113714 0 0 255
0.004297 0.212339 -0.524125 127 127 0
0.284307 0.198761 0.200873 127 0 127
0.194304 -0.744122 0.374602 76 153 0
-0.065599 0.559542 0.402869 0 0 255
-0.384050 -0.022187 -0.393998 255 0 0
-0.384050 -0.534566 0.316765 255 0 0
-0.215139 -0.213874 0.567998 76 0 153
-0.290196 -0.225547 0.116027 204 51 127
-0.091927 -0.552491 0.190360 127 0 127
0.284307 0.157862 -0.162967 127 0 127
-0.312948 0.203046 -0.108082 0 127 127
0.395226 -0.166477 0.236883 0 255 0
-0.010205 -0.203196 -0.512749 127 127 0
0.395226 0.763948 0.262875 0 255 0
0.189714 0.733332 0.533870 0 127 127
0.378161 0.476494 -0.222838 0 255 0
-0.262219 0.218656 -0.353481 76 153 0
-0.401115 -0.117465 -0.365913 255 0 0
-0.065827 -0.791393 -0.553646 127 0 127
0.304508 -0.564160 -0.524125 127 0 127
-0.244587 -0.648811 0.391666 76 153 0
-0.401115 0.373799 0.159500 255 0 0
0.307059 -0.157353 0.443822 153 0 76
0.064109 -0.475701 0.272909 255 0 0
-0.096265 -0.467168 -0.021115 255 0 0
-0.401115 -0.236946 0.002424 255 0 0
0.087197 0.131925 0.533870 127 127 0
-0.312948 0.214622 -0.039737 0 127 127
-0.117136 0.597961 -0.524125 127 127 0
0.395226 -0.206778 0.067366 0 255 0
-0.290196 0.049172 -0.280453 0 127 127
0.378161 0.383134 -0.151239 0 255 0
0.395226 -0.654275 0.286407 127 127 0
-0.192577 -0.032951 -0.512749 127 127 0
-0.401115 0.467977 -0.058323 255 0 0
-0.194816 0.695664 0.567998 153 76 0
-0.035457 -0.617338 -0.558254 127 0 127
0.224447 0.568074 -0.350604 0 0 255
0.199705 -0.617744 -0.558254 127 0 127
-0.290196 0.114913 0.243892 0 127 127
0.284307 -0.494468 -0.218023 153 0 76
-0.152965 -0.374818 -0.524125 127 127 0
-0.316863 -0.099269 -0.512749 127 127 0
-0.384050 -0.412667 0.189700 255 0 0
0.378161 -0.024696 -0.229001 0 255 0
0.284307 0.623309 -0.121400 76 0 153
0.284307 -0.406956 0.409464 153 0 76
-0.338848 -0.572267 0.391666 76 153 0
-0.047873 -0.392667 -0.512749 127 127 0
0.307059 0.270398 0.046080 127 0 127
0.256336 0.039076 -0.234343 153 0 76
0.389538 0.609324 0.566419 153 76 0
-0.384050 -0.755763 0.074583 0 127 127
-0.212405 -0.475701 -0.210795 255 0 0
0.395226 -0.537465 -0.301407 0 255 0
-0.312948 -0.432644 0.097150 204 51 127
0.378161 -0.330731 0.351304 0 255 0
0.171560 -0.427144 -0.376233 0 0 255
-0.312935 0.150610 -0.376233 0 127 127
-0.177244 0.568074 0.411416 0 0 255
-0.290196 -0.486947 -0.206102 255 0 0
-0.290196 0.129433 0.533360 127 127 0
-0.269120 -0.311240 0.533870 76 0 153
-0.194601 0.199350 -0.376233 76 153 0
-0.312948 -0.200106 0.485997 204 51 127
-0.401115 -0.463007 -0.104215 255 0 0
-0.412491 0.484688 0.523874 0 0 255
0.346259 -0.281569 0.499741 204 51 127
0.261076 -0.552491 -0.484704 127 0 127
0.364611 0.562881 -0.524125 127 127 0
0.307059 -0.318153 0.465862 153 0 76
-0.401115 -0.533163 0.398899 255 0 0
-0.304584 0.371833 0.492674 0 127 127
-0.218927 -0.529738 -0.022305 127 0 127
0.301501 -0.552491 -0.126357 127 0 127
-0.235761 0.391119 0.533870 127 0 127
-0.305552 -0.529738 -0.432128 127 0 127
-0.384050 0.552957 0.242586 255 0 0
-0.028044 -0.303697 -0.376233 0 0 255
-0.016971 -0.409898 0.533870 76 0 153
0.395226 0.777207 0.184554 0 255 0
0.395226 0.473387 -0.142611 0 255 0
0.307059 0.283407 -0.110205 127 0 127
0.134623 -0.587888 -0.524125 127 0 127
0.026952 0.726551 0.567998 153 76 0
0.307059 0.135532 0.284165 127 0 127
-0.187678 -0.787189 0.374602 76 153 0
-0.080828 -0.552491 -0.473401 127 0 127
-0.401115 0.264189 -0.442490 255 0 0
0.284307 -0.350061 0.058492 153 0 76
0.378161 -0.686142 0.260346 127 127 0
-0.130659 0.241578 -0.376233 76 153 0
-0.302011 0.200751 -0.512749 127 127 0
0.395226 0.119683 -0.404543 0 255 0
0.057980 0.584604 0.533870 153 76 0
-0.062611 -0.456715 0.511117 255 0 0
0.395226 -0.076685 0.057050 0 255 0
0.284307 -0.447197 0.465424 153 0 76
-0.130498 0.482752 0.511065 153 76 0
0.281406 -0.529738 -0.041811 127 0 127
-0.373913 -0.162075 -0.512749 127 127 0
-0.044993 0.324223 -0.376233 76 153 0
-0.043997 0.402318 -0.524125 127 127 0
0.159870 -0.169216 -0.376233 0 0 255
-0.384050 -0.019993 -0.310558 255 0 0
0.154029 -0.475701 0.254394 255 0 0
0.247213 -0.377629 0.567998 76 0 153
0.277248 0.236917 0.533870 127 0 127
-0.312948 0.274219 -0.262729 0 127 127
0.115944 -0.772260 -0.558254 127 0 127
0.395226 0.518045 -0.479029 0 255 0
0.210803 -0.447932 -0.524125 127 127 0
-0.372248 0.724052 0.533870 0 0 255
-0.294228 0.595628 -0.512749 127 127 0
-0.290196 -0.163923 -0.287303 204 51 127
0.217807 -0.552491 -0.039676 127 0 127
0.307059 0.337653 0.360225 127 0 127
-0.376307 0.212929 -0.512749 255 0 0
0.256219 0.684603 0.567998 153 76 0
0.395226 0.508772 -0.076622 0 255 0
-0.392515 -0.791393 -0.172177 0 127 127
-0.143097 -0.048759 0.533870 127 127 0
0.227895 -0.475701 0.102576 255 0 0
-0.401115 -0.446243 -0.181904 255 0 0
-0.110876 0.559542 0.365943 0 0 255
0.395226 -0.341114 -0.451116 0 255 0
0.395226 0.254732 -0.079675 0 255 0
-0.290196 0.309830 -0.099290 0 127 127
0.395226 -0.639101 -0.392024 127 127 0
-0.212957 -0.572877 -0.524125 127 127 0
-0.298372 -0.373109 -0.524125 127 127 0
-0.312948 0.007994 -0.322855 0 127 127
0.348371 -0.280468 0.567998 76 0 153
0.062126 0.657912 -0.524125 127 127 0
0.378161 -0.093266 -0.496901 0 255 0
-0.384050 0.564888 0.426968 255 0 0
0.250999 0.620974 0.567998 153 76 0
0.284307 0.244648 0.098074 127 0 127
0.020730 0.048393 -0.376233 76 153 0
0.274816 -0.080375 0.512199 127 127 0
0.284307 -0.494701 0.093572 255 0 0
0.395226 0.026494 -0.181423 0 255 0
-0.369021 -0.515601 0.567998 76 0 153
-0.401115 0.293032 0.312381 255 0 0
0.320489 0.689164 -0.558254 255 0 0
-0.384050 0.338498 -0.323480 255 0 0
-0.060011 -0.529738 0.147544 127 0 127
0.307059 -0.253788 -0.291992 153 0 76
-0.384050 0.534219 -0.028965 255 0 0
-0.119746 -0.475701 0.058168 255 0 0
0.245023 -0.529738 -0.451722 127 0 127
-0.312948 0.070985 -0.197047 0 127 127
-0.401115 -0.311046 0.463044 255 0 0
0.048090 0.030544 -0.239432 153 0 76
0.284307 -0.435809 -0.289163 153 0 76
-0.175030 -0.423118 -0.512749 127 127 0
-0.063638 -0.080375 0.516565 127 127 0
0.389538 0.135656 0.564270 127 127 0
0.247535 0.039076 -0.152053 153 0 76
-0.132013 -0.317213 0.567998 76 0 153
-0.384050 -0.408243 0.024865 255 0 0
-0.035530 -0.450019 -0.353481 0 0 255
-0.061172 0.568074 0.321754 0 0 255
-0.263497 -0.586619 0.499749 0 255 0
0.361032 0.609099 -0.524125 127 127 0
-0.401115 0.244932 0.471628 255 0 0
0.204351 -0.465027 0.511117 76 0 153
0.284307 0.177043 0.393529 127 0 127
0.178936 0.151630 -0.353481 76 153 0
0.378161 -0.611457 0.078958 127 127 0
-0.384050 0.737771 0.244420 255 0 0
-0.384050 -0.134701 0.085345 255 0 0
-0.290196 0.220816 0.046473 0 127 127
-0.395426 -0.083868 0.538576 76 0 153
-0.312948 -0.414711 -0.196493 204 51 127
0.137947 0.633917 -0.376233 204 51 127
0.225017 0.014699 -0.524125 127 127 0
-0.401115 0.493244 0.120744 255 0 0
-0.401115 0.020101 -0.529731 255 0 0
-0.384050 -0.025329 -0.473028 255 0 0
-0.255307 0.008166 -0.376233 76 153 0
-0.004396 -0.475701 0.482612 255 0 0
-0.024547 0.195595 0.613258 0 255 0
0.284307 -0.200606 0.002590 153 0 76
0.053241 -0.467168 -0.328760 255 0 0
-0.401115 -0.040220 -0.539774 255 0 0
0.284307 -0.202363 -0.048916 153 0 76
-0.035820 -0.552491 0.497060 0 255 0
0.307059 -0.338440 -0.202640 153 0 76
-0.384050 -0.753887 -0.197612 0 127 127
0.395226 0.108003 0.464704 0 255 0
0.307059 0.638171 0.463645 76 0 153
-0.401115 0.414969 0.024682 255 0 0
-0.290196 -0.300208 -0.270450 204 51 127
0.395226 0.014742 0.350547 0 255 0
0.155822 -0.552491 0.033622 127 0 127
0.353474 0.280943 0.567998 127 127 0
0.284307 -0.266898 0.264593 153 0 76
-0.014349 -0.656785 0.374602 76 153 0
0.129093 0.111190 -0.524125 127 127 0
0.284307 -0.277327 0.441915 153 0 76
-0.384050 -0.305142 -0.395249 255 0 0
-0.183436 -0.552491 0.002456 127 0 127
-0.312948 0.099917 0.403542 0 127 127
0.348936 0.748971 0.533870 0 127 127
0.378161 0.082203 -0.470973 0 255 0
0.378161 -0.754637 -0.456921 127 127 0
0.302997 -0.498453 0.480029 153 0 76
0.290702 0.007792 -0.029070 127 0 127
0.286879 -0.529738 -0.246966 127 0 127
-0.323918 0.511611 0.533870 153 76 0
0.378161 -0.310920 0.435244 0 255 0
0.157553 0.371833 0.514084 127 127 0
-0.355180 -0.174539 0.533870 0 0 255
0.303108 -0.529738 -0.366538 127 0 127
0.217161 -0.529738 0.455175 127 0 127
-0.384050 -0.438773 0.053046 255 0 0
0.307059 0.255406 -0.163587 127 0 127
-0.082398 -0.220610 0.511117 76 0 153
-0.117924 -0.529738 -0.309494 127 0 127
-0.364564 0.043123 -0.524125 127 127 0
0.034006 0.659127 -0.376233 204 51 127
0.215422 0.621400 0.511117 153 76 0
-0.083846 0.315003 0.533870 127 127 0
-0.401115 0.257267 -0.061821 255 0 0
0.395226 0.288081 0.307622 0 255 0
0.176538 0.568074 0.194083 0 0 255
-0.401115 0.490690 -0.528427 255 0 0
-0.010494 -0.481963 0.533870 76 0 153
-0.013458 -0.675707 -0.524125 127 0 127
0.093515 -0.498453 -0.372760 0 0 255
0.406602 -0.237813 0.531968 204 51 127
0.395226 0.697423 -0.289177 0 255 0
-0.203715 0.486876 0.533870 153 76 0
-0.259400 -0.552491 -0.472454 127 0 127
0.042283 0.365050 -0.512749 127 127 0
-0.395873 -0.586619 0.131727 255 0 0
0.211193 -0.783635 -0.524125 127 0 127
-0.384050 -0.207643 -0.305788 255 0 0
0.284307 0.280659 0.198737 127 0 127
0.260938 -0.181094 0.511117 76 0 153
-0.025107 0.559542 0.354478 0 0 255
0.286998 0.203037 0.567998 127 127 0
-0.401115 -0.116966 -0.090492 255 0 0
-0.401115 -0.708487 -0.520433 0 127 127
0.273990 -0.529738 0.023304 127 0 127
-0.227897 -0.173506 0.533870 76 0 153
0.378161 -0.264384 -0.049957 0 255 0
-0.121593 -0.529738 0.171353 127 0 127
-0.157750 0.438271 0.533870 127 127 0
0.297578 -0.529738 0.415733 127 0 127
0.004751 0.648515 -0.558254 255 0 0
0.395226 -0.476520 -0.500153 0 255 0
-0.401115 0.746876 -0.273075 255 0 0
0.395226 0.215564 -0.385576 0 255 0
-0.087990 0.346616 -0.512749 127 127 0
0.356609 0.721654 0.449678 0 0 255
0.378161 -0.190414 -0.018199 0 255 0
-0.384050 -0.121622 0.192246 255 0 0
-0.365033 -0.529738 0.024799 127 0 127
0.122887 0.030544 -0.270662 153 0 76
0.284307 0.641157 -0.337228 76 0 153
-0.401115 0.057659 -0.483764 255 0 0
-0.401115 0.008847 0.072869 255 0 0
0.395226 0.140226 0.292380 0 255 0
-0.116124 -0.552491 0.082513 127 0 127
0.378161 0.628208 -0.162639 0 255 0
-0.183407 -0.703809 0.374602 76 153 0
0.251744 0.039076 0.130120 153 0 76
0.284307 0.076678 -0.193722 127 0 127
-0.384050 0.550165 0.122081 255 0 0
0.395226 0.180508 -0.508216 0 255 0
-0.330197 0.224987 0.567998 127 127 0
-0.290196 0.105015 0.057147 0 127 127
-0.384050 0.077323 0.053382 255 0 0
-0.272898 -0.475701 -0.067534 204 51 127
-0.384050 -0.072280 -0.207965 255 0 0
-0.384050 -0.162829 -0.225610 255 0 0
0.010252 0.644234 0.533870 153 76 0
0.281061 0.629027 0.511117 76 0 153
-0.370757 0.744406 -0.454598 76 0 153
0.378161 -0.722516 -0.516539 127 127 0
0.356384 -0.456926 -0.512749 127 127 0
-0.110237 -0.562202 -0.524125 127 0 127
0.161878 0.244815 0.533870 127 127 0
-0.346239 0.308118 0.499741 0 0 255
-0.071688 -0.645997 -0.558254 127 0 127
0.378161 -0.317250 0.099581 0 255 0
0.238918 0.013804 -0.376233 76 153 0
0.236383 -0.529738 -0.380315 127 0 127
-0.150306 0.039076 -0.321934 153 0 76
0.378161 0.489328 -0.451476 0 255 0
-0.401115 0.218878 -0.009096 255 0 0
-0.384050 0.735149 0.314911 255 0 0
0.209263 -0.552491 0.380364 127 0 127
0.284307 -0.137175 0.028281 153 0 76
0.307059 0.188596 0.483689 127 0 127
-0.401115 -0.365427 0.123770 255 0 0
-0.384050 -0.311399 0.102414 255 0 0
0.027581 0.561495 -0.524125 127 127 0
-0.384050 -0.188402 0.364537 255 0 0
-0.266095 0.030544 -0.006299 153 0 76
0.095367 -0.529738 -0.419313 127 0 127
0.284307 0.149839 0.202609 127 0 127
0.395226 0.189671 0.074190 0 255 0
0.123726 0.628020 0.567998 153 76 0
-0.312821 -0.498453 -0.293588 204 51 127
-0.017145 0.559542 0.149228 0 0 255
-0.048455 -0.475701 0.223126 255 0 0
-0.401115 0.624153 -0.077126 255 0 0
-0.246629 -0.519117 0.533870 0 255 0
0.365104 -0.552491 0.450477 127 0 127
0.119473 0.761471 0.560051 153 76 0
-0.250099 -0.552491 -0.085302 127 0 127
-0.258241 -0.326624 -0.376233 0 0 255
-0.401115 0.640385 0.227819 255 0 0
0.378161 0.737545 -0.233737 0 255 0
0.307059 -0.233270 0.352385 153 0 76
-0.384050 0.734936 -0.315098 255 0 0
0.284307 0.113248 -0.300667 127 0 127
0.209005 -0.164030 0.533870 76 0 153
0.395226 0.311005 -0.352573 0 255 0
-0.312948 0.238076 -0.302931 0 127 127
-0.401115 -0.512781 -0.228919 255 0 0
-0.030921 -0.475701 -0.301224 255 0 0
-0.411007 0.371255 0.533870 0 0 255
0.203566 0.044477 -0.376233 76 153 0
0.378161 0.662918 -0.482659 0 255 0
-0.100836 0.110893 0.533870 127 127 0
-0.322824 -0.529738 -0.152356 127 0 127
-0.308433 -0.529738 0.264514 127 0 127
-0.401115 -0.431361 -0.405282 255 0 0
-0.358299 -0.196388 0.567998 76 0 153
-0.146229 0.680155 -0.558254 255 0 0
0.297713 0.519453 0.533870 153 76 0
-0.092343 -0.119268 0.567998 76 0 153
-0.401115 0.452837 0.198038 255 0 0
-0.401115 0.664858 0.055059 255 0 0
0.076626 0.568074 -0.177499 0 0 255
-0.273068 -0.475701 0.452550 255 0 0
0.091456 -0.552491 0.271989 127 0 127
-0.141318 0.543750 0.567998 153 76 0
-0.136162 -0.615885 0.391666 76 153 0
-0.384050 0.268294 -0.305324 255 0 0
-0.076272 0.371833 -0.367629 76 153 0
0.235197 -0.611991 -0.524125 127 0 127
-0.312948 -0.327808 0.297640 204 51 127
-0.223823 0.337507 0.511117 127 127 0
-0.284088 -0.552491 -0.241523 127 0 127
-0.401115 0.352380 -0.493615 255 0 0
-0.264770 -0.411478 0.567998 76 0 153
-0.095481 -0.551079 0.533870 76 0 153
0.280749 -0.664552 -0.524125 127 0 127
0.378161 0.095925 0.349935 0 255 0
0.307059 -0.389144 0.194462 153 0 76
-0.401115 0.148944 0.341004 255 0 0
0.249187 -0.366691 -0.353481 0 0 255
0.075565 0.457155 0.556889 153 76 0
-0.167080 0.219885 0.511117 127 127 0
-0.129882 -0.680317 -0.524125 127 0 127
-0.106121 0.252487 0.533870 127 127 0
-0.384050 -0.722071 0.138516 0 127 127
-0.053697 0.279436 0.533870 127 127 0
0.057324 0.568074 0.157418 0 0 255
-0.384050 0.234436 -0.145826 255 0 0
-0.158367 -0.258939 0.533870 76 0 153
0.326416 -0.529738 -0.299654 127 0 127
-0.384050 0.602406 -0.147789 255 0 0
0.307059 0.240951 0.226790 127 0 127
-0.150828 0.030544 -0.265758 153 0 76
-0.290812 0.543748 -0.376233 153 0 76
-0.082228 -0.467168 -0.173626 255 0 0
-0.204092 -0.398831 0.533870 76 0 153
0.060356 -0.546945 0.533870 76 0 153
0.168811 0.039076 -0.341348 153 0 76
-0.258641 -0.529738 0.398444 127 0 127
0.284307 -0.453580 -0.171372 153 0 76
-0.086110 0.645337 0.567998 153 76 0
-0.401115 -0.467792 -0.379040 255 0 0
0.194376 0.368725 -0.376233 76 153 0
-0.252665 0.030544 0.398652 153 0 76
0.378161 0.332370 0.244743 0 255 0
0.378161 0.614021 0.087321 0 255 0
0.348321 0.558937 0.499741 204 51 127
0.136424 -0.529738 0.389757 127 0 127
0.378161 0.152890 -0.145488 0 255 0
-0.101849 -0.172995 -0.376233 0 0 255
0.307059 0.593514 -0.057237 76 0 153
-0.138593 -0.024392 -0.524125 127 127 0
0.217923 -0.042749 0.533870 127 127 0
-0.401115 -0.728295 0.212359 0 127 127
0.287262 -0.498453 0.300697 153 0 76
-0.246282 0.538703 0.533870 153 76 0
-0.158519 0.030544 0.374522 153 0 76
-0.044674 -0.586619 0.520271 0 255 0
-0.079864 0.030544 0.255995 153 0 76
-0.290196 -0.392393 0.257016 204 51 127
-0.401115 -0.670930 -0.552442 0 127 127
-0.401115 0.410849 -0.381968 255 0 0
0.395226 0.666221 -0.213981 0 255 0
-0.187615 0.417914 0.499741 127 0 127
0.116163 0.559542 -0.068853 0 0 255
0.236860 0.568074 0.153697 0 0 255
-0.147164 -0.080375 0.502466 127 127 0
0.378161 0.261021 0.260377 0 255 0
-0.384050 -0.614675 0.238145 0 127 127
-0.037673 -0.338277 0.533870 76 0 153
0.307059 -0.204894 -0.345623 153 0 76
-0.401115 -0.394159 -0.360828 255 0 0
-0.315393 -0.116858 0.533870 204 51 127
0.363567 0.512658 0.499741 204 51 127
-0.287078 0.709223 -0.512749 76 0 153
-0.290196 -0.494040 0.359526 204 51 127
-0.366960 -0.549504 0.499741 0 0 255
0.378161 0.428185 0.042869 0 255 0
0.042550 0.616694 0.608966 76 0 153
0.118095 0.479022 0.499741 127 0 127
-0.384050 0.258158 -0.264724 255 0 0
-0.251549 -0.767525 -0.524125 127 0 127
-0.312948 0.571957 0.310128 153 0 76
-0.312948 0.614143 0.257398 153 0 76
-0.401115 0.543800 -0.101571 255 0 0
0.037329 -0.393540 -0.524125 127 127 0
-0.112558 0.739733 0.533870 153 76 0
-0.312948 0.146261 -0.105839 0 127 127
-0.070253 0.571641 0.533870 153 76 0
-0.290196 0.170213 -0.179572 0 127 127
0.059814 -0.332652 -0.376233 0 0 255
0.284307 0.628484 -0.185204 76 0 153
0.102258 -0.155904 -0.524125 127 127 0
-0.384050 0.610915 -0.412630 255 0 0
-0.180491 0.559542 0.150169 0 0 255
-0.290196 0.208244 0.520495 0 127 127
-0.315539 -0.033777 0.499741 127 127 0
-0.150165 -0.552491 -0.154458 127 0 127
0.305773 -0.125327 0.567998 76 0 153
0.361670 0.234372 0.533870 204 51 127
0.247535 0.449494 0.499741 127 0 127
0.211304 -0.475701 -0.191692 255 0 0
-0.027396 -0.529738 0.006594 127 0 127
-0.401115 -0.637597 -0.023637 0 127 127
0.111181 0.039076 0.178714 153 0 76
0.121261 -0.139164 -0.376233 0 0 255
-0.384050 -0.479116 0.223616 255 0 0
0.378161 0.370335 -0.395937 0 255 0
0.281269 0.030544 0.179172 153 0 76
-0.384050 0.187330 0.345219 255 0 0
0.307059 -0.382179 0.342636 153 0 76
0.378161 0.657634 -0.002190 0 255 0
-0.147023 0.172928 -0.376233 76 153 0
0.307059 -0.265655 0.149611 153 0 76
0.395226 0.529885 0.206107 0 255 0
0.066954 -0.467168 0.401309 255 0 0
0.307059 0.311836 0.508318 127 0 127
-0.216536 0.154389 0.533870 127 127 0
0.363063 0.692381 -0.558254 255 0 0
0.258884 0.695344 -0.512749 127 127 0
-0.204030 0.030544 0.330482 153 0 76
-0.384050 0.501820 0.449659 255 0 0
-0.180226 -0.467168 0.176444 255 0 0
0.307059 -0.245035 -0.094703 153 0 76
0.378161 0.665288 -0.133970 0 255 0
-0.401115 0.181505 -0.205602 255 0 0
-0.401115 -0.790998 -0.063323 0 127 127
-0.219291 0.048288 0.511117 127 127 0
-0.401115 -0.619984 -0.438963 0 127 127
-0.001161 -0.699619 -0.558254 127 0 127
-0.401115 0.494059 -0.235863 255 0 0
0.378161 -0.130258 0.340278 0 255 0
-0.141614 0.181317 0.567998 127 127 0
-0.004583 0.068983 -0.512749 127 127 0
0.181521 0.568074 0.115509 0 0 255
-0.401115 -0.036409 0.005562 255 0 0
-0.168806 0.371833 0.514757 127 127 0
-0.401115 -0.790507 -0.367677 0 127 127
0.321544 -0.689537 -0.524125 127 0 127
0.013208 -0.351344 0.533870 76 0 153
-0.289312 0.116003 -0.512749 127 127 0
0.061538 -0.529738 0.054901 127 0 127
-0.384050 0.673564 -0.468700 255 0 0
0.406602 -0.432845 0.527685 204 51 127
-0.020615 -0.529738 0.402253 127 0 127
-0.384050 0.617330 0.200019 255 0 0
0.115285 -0.552491 -0.028990 127 0 127
0.151009 -0.414964 0.533870 76 0 153
0.378161 0.040135 0.278078 0 255 0
0.284307 -0.307478 0.344607 153 0 76
0.010521 0.704736 -0.558254 255 0 0
0.065139 -0.176203 0.533870 76 0 153
0.182428 -0.529738 -0.332106 127 0 127
0.323110 -0.164585 0.567998 76 0 153
0.089656 -0.341109 0.567998 76 0 153
-0.384050 -0.741808 -0.306417 0 127 127
0.378161 -0.348925 -0.259424 0 255 0
0.284307 0.012828 0.054526 127 0 127
0.284307 -0.236173 0.483502 153 0 76
-0.290196 0.274199 0.404113 0 127 127
0.264619 -0.249873 -0.376233 153 0 76
0.302422 0.536789 -0.007096 76 0 153
0.395226 -0.635138 -0.306123 127 127 0
-0.085901 -0.681572 0.374602 76 153 0
-0.290196 0.337731 -0.276717 0 127 127
-0.384050 0.441761 -0.125023 255 0 0
0.287202 -0.288834 0.567998 76 0 153
-0.384050 -0.005524 0.417933 255 0 0
-0.202796 -0.476637 -0.524125 127 127 0
0.307059 -0.487659 0.208064 153 0 76
0.395226 0.100887 0.286132 0 255 0
0.163842 -0.485531 0.511117 76 0 153
-0.112022 -0.529738 -0.398842 127 0 127
-0.401115 0.693567 0.389390 255 0 0
-0.078248 0.559542 0.218048 0 0 255
0.406602 -0.030496 0.532054 204 51 127
-0.401115 -0.072084 -0.250895 255 0 0
0.307059 0.228224 -0.229453 127 0 127
0.284307 0.096846 -0.046350 127 0 127
0.378161 0.733569 -0.377268 0 255 0
0.163982 0.603672 0.567998 153 76 0
-0.140412 0.030544 0.443424 153 0 76
0.071642 -0.412102 -0.353481 0 0 255
0.395226 -0.495112 0.403509 0 255 0
0.284307 -0.320757 0.010012 153 0 76
-0.223006 -0.529738 -0.264913 127 0 127
-0.075007 0.600265 -0.353481 204 51 127
0.094585 -0.552491 0.205906 127 0 127
0.378161 -0.343538 -0.397402 0 255 0
-0.312948 -0.278760 0.476386 204 51 127
-0.384050 0.219824 0.370360 255 0 0
-0.384050 0.173723 0.089554 255 0 0
0.395226 -0.629386 0.206607 127 127 0
-0.384050 -0.698936 -0.048497 0 127 127
-0.387560 0.778535 0.358971 255 0 0
-0.312948 0.171696 0.394376 0 127 127
-0.401115 -0.156915 -0.460871 255 0 0
-0.290196 0.159717 0.015313 0 127 127
0.395226 -0.056656 0.388428 0 255 0
0.395226 0.712143 0.315689 0 255 0
-0.074377 0.156606 0.567998 127 127 0
0.292978 -0.524699 -0.558254 127 0 127
0.288712 -0.199349 0.533870 76 0 153
0.064672 -0.467168 -0.195512 255 0 0
0.307059 0.050815 0.025522 127 0 127
-0.401115 0.467217 -0.331760 255 0 0
-0.092706 -0.290731 0.567998 76 0 153
0.307059 -0.172255 0.492497 153 0 76
0.189855 -0.263751 -0.512749 127 127 0
0.016199 -0.552491 -0.484724 127 0 127
0.334500 0.721648 -0.524125 255 0 0
-0.160474 -0.161539 0.533870 76 0 153
-0.384050 -0.016757 0.189700 255 0 0
-0.089343 -0.564387 0.374602 76 153 0
-0.119973 0.381092 -0.512749 127 127 0
-0.290196 -0.305685 -0.334581 204 51 127
0.182408 -0.404272 -0.524125 127 127 0
-0.384050 0.153413 -0.283974 255 0 0
0.055069 -0.529738 0.100613 127 0 127
-0.401115 -0.673483 -0.103627 0 127 127
0.218579 0.146132 0.533870 127 127 0
-0.091890 0.492097 0.533870 153 76 0
-0.312948 0.631985 0.491653 153 0 76
-0.267685 -0.529738 -0.311325 127 0 127
-0.036406 0.115769 -0.353481 76 153 0
0.307059 0.142625 -0.191753 127 0 127
0.395226 0.221429 -0.188568 0 255 0
0.395226 -0.030911 0.241067 0 255 0
0.298571 -0.529738 -0.418989 127 0 127
0.284307 0.644659 0.261676 76 0 153
-0.174825 0.039076 0.117707 153 0 76
0.378161 -0.619477 -0.084083 127 127 0
0.184428 0.689074 0.533870 153 76 0
0.355829 -0.552491 -0.378774 127 0 127
0.025051 -0.434132 -0.512749 127 127 0
-0.263180 -0.012117 0.531656 127 127 0
0.307059 0.128104 0.462328 127 0 127
-0.356720 0.331902 0.533870 127 127 0
-0.199123 0.557534 -0.353481 204 51 127
0.292307 0.603063 0.567998 153 76 0
0.129579 -0.277424 -0.376233 0 0 255
0.284307 0.170134 0.528547 127 127 0
0.378161 -0.599172 -0.238355 127 127 0
-0.146535 -0.182111 -0.512749 127 127 0
-0.312948 0.583629 -0.169401 153 0 76
-0.384050 0.077801 0.374452 255 0 0
0.299404 0.536789 -0.128954 76 0 153
0.307059 -0.493318 -0.146087 153 0 76
0.306326 -0.286250 -0.524125 127 127 0
0.232599 0.039076 0.406187 153 0 76
-0.412491 0.079921 0.528742 0 0 255
-0.070588 0.559542 0.478155 0 0 255
-0.401115 0.427397 0.242738 255 0 0
-0.153830 0.050140 -0.376233 76 153 0
0.047768 -0.467168 -0.033241 255 0 0
-0.099780 -0.529738 -0.089860 127 0 127
0.106859 0.168413 -0.376233 76 153 0
-0.401115 0.080044 -0.537030 255 0 0
0.129826 -0.034749 0.533870 127 127 0
-0.401115 0.384415 0.286655 255 0 0
0.196752 -0.552491 0.276316 127 0 127
0.190033 -0.065154 -0.512749 127 127 0
0.058973 0.148797 -0.524125 127 127 0
0.084838 0.336093 -0.376233 76 153 0
-0.205806 0.742816 -0.558254 255 0 0
-0.312948 -0.477779 0.298016 204 51 127
-0.401115 -0.193896 -0.358421 255 0 0
0.395226 0.659269 -0.405515 0 255 0
0.338069 0.308424 -0.524125 127 127 0
0.161778 -0.467168 -0.127687 255 0 0
0.264209 0.039076 -0.039652 153 0 76
0.307059 -0.284789 0.526136 76 0 153
-0.290196 0.344118 0.369191 0 127 127
0.284307 -0.214347 0.108270 153 0 76
-0.290196 0.134817 0.336120 0 127 127
-0.117881 -0.644214 -0.558254 127 0 127
-0.049834 0.166085 0.533870 127 127 0
-0.365419 0.472196 0.499741 0 0 255
-0.170305 0.349902 -0.512749 127 127 0
0.113097 0.039775 -0.353481 153 0 76
-0.359995 0.086500 0.533870 127 127 0
0.196835 0.588680 -0.376233 204 51 127
0.137854 -0.529738 -0.403347 127 0 127
-0.180702 0.563824 0.567998 153 76 0
0.395226 -0.699059 0.337625 127 127 0
0.395226 0.747922 0.056451 0 255 0
0.362147 -0.552491 -0.187110 127 0 127
0.284307 0.637968 0.049760 76 0 153
-0.051556 0.745524 0.533870 153 76 0
0.065212 -0.675046 0.374602 76 153 0
-0.145522 0.559542 -0.207246 0 0 255
-0.401115 -0.541210 0.441469 127 0 127
0.307059 -0.280454 0.007490 153 0 76
0.378161 0.040804 0.117948 0 255 0
-0.367283 0.245442 0.533870 127 127 0
-0.308573 -0.663116 -0.558254 127 0 127
0.395226 -0.591433 0.034391 127 127 0
0.378161 0.036279 -0.430761 0 255 0
0.141650 -0.218268 0.533870 76 0 153
0.378161 -0.478671 -0.009080 0 255 0
-0.354688 0.681214 -0.558254 255 0 0
-0.220245 -0.552491 0.056233 127 0 127
-0.263651 -0.529738 -0.390800 127 0 127
0.223491 0.394383 0.533870 127 127 0
-0.290435 0.735414 -0.558254 255 0 0
-0.290196 0.639350 0.435871 153 0 76
-0.329968 0.650767 0.567998 153 76 0
0.272108 -0.552491 0.127900 127 0 127
-0.087552 -0.747204 0.374602 76 153 0
0.307059 0.029311 -0.199226 127 0 127
0.307059 -0.395756 0.274622 153 0 76
-0.297397 -0.529738 -0.079900 127 0 127
-0.361807 0.299975 -0.512749 127 127 0
-0.049187 -0.377830 -0.353481 0 0 255
-0.290196 0.197273 -0.209888 0 127 127
0.354247 -0.742609 -0.558254 127 0 127
-0.197768 -0.760031 -0.558254 127 0 127
0.089800 0.550028 -0.512749 127 127 0
-0.255983 0.666403 -0.558254 255 0 0
0.320237 -0.504587 -0.512749 127 127 0
-0.310828 -0.529738 0.426836 127 0 127
-0.051786 0.064773 0.567998 127 127 0
-0.312948 0.357316 -0.336113 0 127 127
-0.074439 0.030544 0.404843 153 0 76
0.085226 -0.659622 -0.524125 127 0 127
0.299536 0.721654 0.460014 0 0 255
0.200863 0.039076 -0.266468 153 0 76
-0.384050 0.116640 0.141450 255 0 0
0.254707 0.303926 -0.524125 127 127 0
-0.236212 0.326128 -0.353481 76 153 0
-0.401115 -0.750773 -0.022758 0 127 127
0.127344 0.685833 -0.558254 255 0 0
0.378161 -0.113722 0.401893 0 255 0
0.378161 0.206033 -0.029089 0 255 0
0.102354 0.227595 0.533870 127 127 0
-0.312948 0.354223 0.074758 0 127 127
0.395226 -0.594824 -0.148274 127 127 0
0.027125 0.335991 0.511117 127 127 0
0.389538 0.211675 0.558359 127 127 0
-0.384050 0.112216 0.436503 255 0 0
0.166343 0.105598 -0.376233 76 153 0
-0.401115 0.638487 0.492178 0 0 255
0.088140 0.039076 0.319828 153 0 76
-0.401115 0.703940 0.107513 255 0 0
0.378161 0.520738 0.324511 0 255 0
-0.065998 0.063019 -0.524125 127 127 0
-0.027315 -0.791393 -0.524295 127 0 127
0.284307 -0.160132 -0.341264 153 0 76
-0.009303 -0.149920 0.533870 76 0 153
-0.113074 0.303453 -0.376233 76 153 0
-0.401115 0.025503 0.233177 255 0 0
0.395226 0.267605 -0.353932 0 255 0
-0.384050 -0.555626 0.060260 255 0 0
-0.401115 -0.086201 0.294963 255 0 0
0.343066 -0.529738 -0.348985 127 0 127
0.378161 0.629394 0.256493 0 255 0
0.367349 -0.586348 0.533870 204 51 127
-0.312948 -0.173198 -0.373113 204 51 127
0.355962 0.007967 0.567998 127 127 0
0.192558 0.039076 0.087566 153 0 76
0.355022 0.331138 0.499741 204 51 127
0.132831 -0.658082 -0.524125 127 0 127
-0.313556 -0.529738 0.372923 127 0 127
-0.401115 0.762138 0.280254 255 0 0
-0.274750 -0.216164 0.567998 76 0 153
0.184302 -0.657889 -0.558254 127 0 127
-0.368052 -0.078501 -0.524125 127 127 0
-0.384050 -0.548999 -0.157679 127 0 127
-0.401115 -0.064142 -0.119762 255 0 0
-0.142777 -0.447024 -0.524125 127 127 0
0.395226 0.600488 0.186662 0 255 0
-0.384050 0.661675 -0.212084 255 0 0
-0.118416 -0.080322 0.567998 76 0 153
0.240875 0.750926 0.499741 0 127 127
-0.086543 0.007792 -0.368998 76 153 0
0.302422 0.426429 0.499741 127 0 127
0.301321 0.007792 0.493396 127 0 127
-0.384050 0.215211 -0.334307 255 0 0
-0.250887 -0.439966 -0.512749 204 51 127
-0.309088 0.673304 0.513564 153 0 76
0.199608 0.642020 -0.553539 255 0 0
0.180695 -0.335067 -0.353481 0 0 255
0.378530 0.657617 0.567998 153 76 0
-0.271380 -0.171211 0.511117 76 0 153
-0.348408 -0.411058 0.567998 76 0 153
-0.312948 -0.171601 0.426023 153 0 76
0.378161 -0.493082 0.271105 0 255 0
0.062104 0.227885 -0.353481 76 153 0
0.153644 -0.347222 0.533870 76 0 153
0.307059 0.252639 0.475736 127 0 127
-0.401115 0.749435 0.425181 255 0 0
0.300779 0.096979 -0.376233 127 0 127
-0.302290 0.007792 -0.001229 0 127 127
-0.290196 0.167075 0.101886 0 127 127
0.017924 -0.427306 0.533870 76 0 153
-0.129144 -0.511799 -0.524125 127 0 127
0.359252 0.646078 0.533870 204 51 127
0.240410 -0.475701 -0.288050 255 0 0
-0.312948 0.082954 0.217437 0 127 127
0.238487 -0.529738 0.216684 127 0 127
-0.384050 -0.126683 -0.405196 255 0 0
-0.204402 -0.552491 -0.432454 127 0 127
0.366833 -0.166374 -0.512749 127 127 0
-0.141632 -0.550835 0.533870 76 0 153
-0.384050 -0.477025 -0.554433 255 0 0
0.153078 0.380518 -0.524125 127 127 0
-0.358585 0.399093 -0.524125 127 127 0
0.395226 0.458100 -0.084267 0 255 0
0.003025 -0.475701 0.098860 255 0 0
-0.262135 -0.467168 0.288235 255 0 0
-0.246905 0.640483 0.533870 153 76 0
0.160292 0.420425 0.567998 127 127 0
0.173352 -0.467168 0.393076 255 0 0
-0.271644 0.406392 0.533870 127 0 127
0.003844 0.536789 -0.354468 204 51 127
0.395226 -0.229232 -0.109513 0 255 0
0.102957 -0.552491 0.139168 127 0 127
0.364265 0.387933 0.533870 127 127 0
-0.317805 -0.455634 -0.524125 204 51 127
-0.118732 -0.160481 0.533870 76 0 153
-0.312948 0.271758 -0.136644 0 127 127
0.129076 -0.529738 0.211027 127 0 127
0.227876 -0.475701 -0.241150 255 0 0
-0.149984 0.061036 0.533870 127 127 0
-0.205302 -0.529738 -0.227425 127 0 127
0.047490 0.721654 -0.513650 255 0 0
0.378161 -0.612891 0.327806 127 127 0
-0.150872 0.139658 -0.524125 127 127 0
-0.312948 -0.243455 0.514493 76 0 153
0.141258 0.030544 0.012853 153 0 76
0.206302 -0.275423 0.567998 76 0 153
-0.401115 0.399592 -0.041664 255 0 0
0.079879 -0.276235 -0.512749 127 127 0
-0.401115 -0.302964 0.176239 255 0 0
0.406602 0.577926 0.521441 204 51 127
0.120397 0.732184 -0.524125 127 127 0
0.284307 -0.180544 0.089118 153 0 76
0.062200 -0.467168 0.196646 255 0 0
-0.401115 0.018271 0.389257 255 0 0
0.307230 0.385816 0.533870 127 0 127
0.116515 -0.444768 -0.376233 0 0 255
0.395226 0.588040 0.116880 0 255 0
-0.384050 -0.356630 -0.020546 255 0 0
-0.063708 0.030544 -0.164510 153 0 76
0.314756 0.526674 0.567998 153 76 0
0.062682 0.205024 0.605389 0 255 0
0.159667 0.039291 0.567998 127 127 0
-0.384050 0.071961 -0.125705 255 0 0
-0.249551 0.768402 -0.558254 255 0 0
0.395226 0.005911 -0.411357 0 255 0
-0.384050 -0.158878 0.436574 255 0 0
0.303106 -0.492175 -0.376233 153 0 76
-0.265014 -0.529738 -0.008657 127 0 127
-0.384050 -0.474686 -0.475146 255 0 0
0.186049 0.030544 0.238721 153 0 76
0.209956 0.039076 0.014065 153 0 76
-0.401115 0.478577 -0.424296 255 0 0
0.284307 -0.194356 0.355614 153 0 76
0.307059 -0.143566 -0.277849 153 0 76
0.395226 -0.363952 0.373693 0 255 0
-0.034868 0.571670 -0.353481 0 0 255
0.378161 -0.045434 -0.439829 0 255 0
-0.290196 0.096458 0.365697 0 127 127
-0.083362 -0.025394 0.567998 127 127 0
0.307059 0.088527 0.110692 127 0 127
0.089199 0.758653 -0.558254 255 0 0
0.227562 -0.329137 -0.512749 127 127 0
-0.278624 0.463082 0.567998 127 127 0
0.069489 -0.552491 0.362456 127 0 127
-0.048927 0.639296 0.533870 153 76 0
-0.238913 -0.190147 -0.376233 0 0 255
0.029541 -0.572659 0.533870 0 255 0
-0.384050 -0.217908 -0.172527 255 0 0
0.034631 -0.552491 -0.045438 127 0 127
-0.290196 0.593971 0.132599 153 0 76
0.165924 -0.475701 0.113363 255 0 0
0.284869 -0.552491 -0.293411 127 0 127
-0.384050 0.045049 -0.011767 255 0 0
0.028715 -0.529738 0.162040 127 0 127
0.328738 -0.677729 0.374602 76 153 0
-0.114237 0.759216 -0.558254 255 0 0
0.043865 0.559542 0.195651 0 0 255
0.135560 0.568074 0.296481 0 0 255
-0.290196 -0.237746 0.315122 204 51 127
0.378161 -0.354736 0.429867 0 255 0
-0.226775 -0.230761 0.533870 76 0 153
0.270090 -0.426296 0.533870 76 0 153
0.378161 0.605992 -0.266982 0 255 0
0.395226 -0.196345 0.309129 0 255 0
-0.194377 -0.071417 0.567998 76 0 153
0.395226 -0.526151 -0.166507 0 255 0
-0.391661 0.310966 0.567998 127 127 0
0.008119 -0.263986 -0.512749 127 127 0
-0.390494 -0.791393 0.100989 0 127 127
0.284307 0.274695 0.335628 127 0 127
-0.386293 -0.791393 0.230559 0 127 127
-0.187556 0.326848 0.533870 127 127 0
0.043071 -0.552491 -0.117529 127 0 127
-0.401115 0.550017 0.084652 255 0 0
0.378428 0.074939 0.533870 127 127 0
-0.312948 -0.399043 0.136785 204 51 127
-0.412491 0.740245 0.528652 0 0 255
-0.385292 -0.117984 0.499741 0 0 255
-0.401115 0.351456 0.041362 255 0 0
0.290517 0.371833 0.339060 127 0 127
-0.164048 -0.259359 -0.512749 127 127 0
0.378161 -0.286222 0.478497 0 255 0
0.246861 0.572266 0.567998 153 76 0
-0.161386 -0.475701 -0.151313 255 0 0
0.284307 0.331717 0.017164 127 0 127
-0.047211 -0.552491 0.204316 127 0 127
-0.258221 0.747887 0.533870 153 76 0
0.339649 -0.529738 0.266885 127 0 127
0.078598 0.668041 -0.558254 255 0 0
0.230260 0.104213 -0.353481 76 153 0
-0.295861 0.371833 0.254680 0 127 127
0.182710 0.559542 -0.183144 0 0 255
-0.384050 -0.275756 -0.246343 255 0 0
-0.384050 0.294323 -0.185774 255 0 0
-0.240990 0.030544 -0.301983 153 0 76
0.284307 -0.464544 0.055025 255 0 0
0.378161 0.778136 -0.421118 0 255 0
-0.401115 -0.070884 0.408173 255 0 0
0.277056 0.559542 -0.349041 76 0 153
0.378161 -0.695359 -0.339126 127 127 0
0.378161 0.513583 -0.196288 0 255 0
-0.350979 0.156215 0.533870 0 0 255
0.378161 -0.352547 0.300193 0 255 0
0.341289 -0.424996 0.567998 76 0 153
-0.322767 -0.081637 0.567998 76 0 153
-0.312948 -0.461876 0.122247 204 51 127
0.272761 -0.529738 -0.089146 127 0 127
0.180752 -0.540148 0.533870 76 0 153
0.040414 0.285580 0.533870 127 127 0
-0.401115 -0.664108 -0.234628 0 127 127
-0.052714 0.559542 -0.254670 0 0 255
0.378161 0.069930 0.471701 0 255 0
-0.016889 -0.011535 -0.524125 127 127 0
-0.196151 -0.475701 0.420383 255 0 0
0.358804 0.108417 -0.512749 127 127 0
0.307059 0.582012 0.191707 76 0 153
0.225390 -0.467168 0.008695 255 0 0
0.252842 0.251207 -0.524125 127 127 0
0.182904 0.255780 -0.512749 127 127 0
0.395226 0.489551 0.185721 0 255 0
-0.384050 0.709765 0.461777 204 51 127
0.044439 -0.141968 -0.376233 0 0 255
0.378161 0.578079 0.294989 0 255 0
0.323985 -0.529738 -0.480023 127 0 127
-0.401115 -0.758667 -0.466395 0 127 127
0.378161 -0.407456 -0.042084 0 255 0
0.379467 0.778535 -0.051093 0 255 0
0.226874 -0.529738 -0.108592 127 0 127
0.307059 0.346845 0.226895 127 0 127
-0.401115 0.620972 -0.115436 255 0 0
0.101960 0.068062 0.533870 127 127 0
-0.401115 0.183178 0.461686 255 0 0
-0.292297 -0.550118 0.499741 0 255 0
-0.290196 -0.170663 0.205753 204 51 127
0.395226 -0.255655 -0.354981 0 255 0
0.344121 0.604277 0.499741 204 51 127
-0.264898 0.030544 0.161198 153 0 76
-0.290196 0.279267 -0.232202 0 127 127
-0.384050 0.345418 0.091552 255 0 0
0.378161 -0.419179 -0.180296 0 255 0
0.307059 0.327039 -0.051571 127 0 127
0.264067 0.042817 -0.376233 76 153 0
-0.294596 -0.498453 0.060490 204 51 127
0.199273 -0.429840 0.533870 76 0 153
0.354214 0.710946 0.533870 204 51 127
0.378161 -0.013602 0.403516 0 255 0
0.161657 -0.031462 -0.524125 127 127 0
0.001544 -0.475701 0.232831 255 0 0
-0.290196 0.177126 0.167936 0 127 127
0.395226 0.181126 -0.360017 0 255 0
0.307059 0.269789 -0.336337 127 0 127
-0.086774 -0.529738 -0.273703 127 0 127
0.378161 -0.268501 0.185430 0 255 0
-0.401115 -0.429529 0.089901 255 0 0
-0.312948 0.542677 -0.033177 153 0 76
0.112548 -0.275338 0.567998 76 0 153
-0.175044 0.559542 0.499446 153 76 0
0.395226 0.325392 0.027530 0 255 0
0.387744 -0.791393 0.237452 127 127 0
-0.014633 0.690070 -0.512749 127 127 0
0.375547 -0.324655 0.533870 204 51 127
0.307059 0.138882 -0.104982 127 0 127
-0.401115 0.605602 0.065083 255 0 0
-0.175963 0.404263 0.533870 127 127 0
0.271859 -0.529738 0.384522 127 0 127
-0.310850 -0.134412 -0.122940 204 51 127
0.395226 0.229034 0.337011 0 255 0
-0.042353 0.621465 -0.524125 127 127 0
0.237889 -0.172734 0.567998 76 0 153
-0.228045 0.603082 0.567998 153 76 0
-0.132125 0.518780 0.533870 153 76 0
-0.322464 0.095468 0.533870 127 127 0
0.021288 0.148240 0.533870 127 127 0
-0.384050 -0.144315 0.330940 255 0 0
-0.061696 -0.719297 -0.524125 127 0 127
0.378161 0.260203 -0.005744 0 255 0
0.066888 -0.791393 -0.547908 127 0 127
-0.128510 0.026449 0.533870 127 127 0
0.089851 -0.198518 0.511117 76 0 153
-0.384050 -0.695487 -0.417893 0 127 127
0.395226 -0.716727 -0.277643 127 127 0
-0.244326 0.239247 0.567998 127 127 0
0.295167 -0.411546 -0.376233 153 0 76
0.025182 -0.675126 -0.524125 127 0 127
-0.376419 -0.207050 0.533870 0 0 255
-0.384050 0.166196 -0.438287 255 0 0
0.307059 0.654646 -0.132549 76 0 153
0.319997 -0.569555 0.565037 76 0 153
-0.401115 0.090475 -0.345692 255 0 0
0.259908 0.075313 0.533870 127 127 0
0.307059 0.566205 0.038162 76 0 153
-0.290196 0.594603 0.480128 153 0 76
0.307059 0.349496 -0.346056 127 0 127
0.103189 -0.674299 -0.558254 127 0 127
-0.380955 -0.314636 0.533870 76 0 153
-0.141163 -0.529738 -0.435178 127 0 127
0.132158 -0.753247 -0.524125 127 0 127
0.378161 -0.285884 0.389027 0 255 0
-0.372360 0.552672 0.499741 0 0 255
0.284307 0.092862 -0.152684 127 0 127
0.223528 0.671735 0.533870 153 76 0
-0.281236 -0.461841 -0.353481 0 0 255
-0.385702 -0.791393 0.146550 0 127 127
-0.110832 0.650471 0.533870 153 76 0
0.394294 -0.791393 -0.324650 127 127 0
-0.394955 -0.000477 0.533870 127 127 0
0.307059 0.209871 -0.022329 127 0 127
-0.043832 -0.231044 -0.353481 0 0 255
0.395226 0.261712 -0.212576 0 255 0
0.018474 -0.529738 0.227134 127 0 127
-0.384050 -0.001940 0.336195 255 0 0
-0.286167 -0.015814 -0.512749 127 127 0
0.373387 0.461144 0.533870 204 51 127
-0.191292 0.030544 -0.020096 153 0 76
-0.190974 -0.475701 -0.344037 255 0 0
0.333821 0.675208 0.533870 153 76 0
0.373399 0.777472 -0.558254 255 0 0
-0.401115 0.013640 -0.323100 255 0 0
-0.401115 0.540406 0.021600 255 0 0
